# .PCD v0.7 - Point Cloud Data file format
VERSION 0.7
FIELDS x y z intensity
SIZE 4 4 4 4
TYPE F F F F
COUNT 1 1 1 1
WIDTH 68
HEIGHT 1
VIEWPOINT 0 0 0 1 0 0 0
POINTS 68
DATA ascii
127.14976 99.412407 -2.765378 6
127.73943 99.421471 -2.7707973 6
128.66208 99.435646 -2.767061 6
129.11902 99.442673 -2.7717669 6
129.55014 99.4534 -2.771884 6
129.95865 99.455574 -2.770113 6
130.38867 99.466141 -2.7705486 6
130.78952 99.468346 -2.7648351 6
131.21449 99.474876 -2.761579 6
131.67126 99.481895 -2.7629941 6
132.60872 99.4963 -2.7594671 6
133.16057 99.524384 -2.7661343 6
134.25388 99.541595 -2.7643931 6
133.83307 102.39803 -2.7650633 6
137.31665 102.54359 -2.7595155 -2
128.8243 107.46953 -2.7730401 3
128.91312 107.48637 -2.7619069 3
129.03432 107.48824 -2.7637608 3
129.16173 107.4902 -2.7672417 3
129.29572 107.49216 -2.7722893 3
129.42664 107.48951 -2.7720807 3
129.56201 107.48572 -2.7718651 3
129.66492 107.49792 -2.7556446 3
129.9857 107.49687 -2.7711904 3
130.63638 107.49033 -2.7701542 3
130.99831 107.49894 -2.7695777 3
129.82794 107.50043 -2.7669487 3
130.09158 107.50449 -2.7487423 3
130.28178 107.50741 -2.7649438 3
130.46072 107.50157 -2.7704339 3
130.80727 107.5123 -2.769882 3
131.18568 107.52097 -2.7692792 3
131.39453 107.50533 -2.7689466 3
131.60109 107.52742 -2.7686179 3
131.83073 107.50928 -2.7682521 3
132.05975 107.53144 -2.7678874 3
132.24225 107.53754 -2.7433233 3
132.56946 107.53277 -2.7670755 3
132.85258 107.50879 -2.7666247 3
133.14003 107.53107 -2.7661669 3
133.44571 107.55433 -2.7656801 3
133.78403 107.52596 -2.7651412 3
134.13225 107.54938 -2.7645867 3
134.49704 107.57219 -2.7614298 3
134.91846 107.54044 -2.7633348 3
135.35016 107.56535 -2.7626472 3
135.8167 107.59178 -2.7619042 3
136.33534 107.55192 -2.7610781 3
136.8862 107.57881 -2.760201 3
138.16205 107.55992 -2.7581692 3
138.89142 107.58955 -2.7570076 3
137.48825 107.60773 -2.7592421 3
147.37825 107.64573 -2.7434919 -2
136.24203 87.520508 -2.6157348 -2
147.87172 87.638931 -2.6493671 -2
129.62843 89.166573 -2.6473975 -2
132.99683 95.361771 -2.6863947 -2
129.6459 95.465744 -2.6686413 -2
168.07263 95.71553 -2.6305346 -2
127.74268 99.413406 -2.6866076 6
157.80815 106.86579 -2.6306753 -2
148.93808 107.79642 -2.6788082 -2
144.08188 111.1553 -2.6325276 -2
150.88824 86.746666 -2.5797646 -2
138.89954 87.63028 -2.5443461 -2
133.04613 100.58955 -2.4486165 6
138.64789 108.6597 -2.4275436 3
148.93542 111.20911 -2.4721775 -2
